# .PCD v0.7 - Point Cloud Data file format
VERSION 0.7
FIELDS x y z
SIZE 4 4 4
TYPE F F F
COUNT 1 1 1
WIDTH 321
HEIGHT 1
VIEWPOINT 0 0 0 1 0 0 0
POINTS 321
DATA ascii
-0.12919 0.34457001 -1.4164
-0.12927 0.35023001 -1.4181
-0.12897 0.34369999 -1.4073
-0.12885 0.35097 -1.4004
-0.128566 0.32606998 -1.39448
-0.12863 0.33133 -1.3959
-0.12875 0.34279999 -1.3983001
-0.1281825 0.2947475 -1.3854251
-0.12819 0.31908 -1.3803
-0.12839 0.32222 -1.3878
-0.1265 0.39654499 -1.3846
-0.12777001 0.26177001 -1.375
-0.12795401 0.30550799 -1.37354
-0.12803666 0.31335333 -1.3751332
-0.12812001 0.32843 -1.375
-0.12735 0.39292002 -1.3731
-0.20363666 0.24819666 -1.3630667
-0.127535 0.24489751 -1.3682249
-0.20398 0.25442001 -1.3660001
-0.12748332 0.25271666 -1.3644667
-0.12753001 0.26465499 -1.3642499
-0.12752999 0.27144 -1.3629501
-0.12774999 0.28623 -1.3691
-0.1276 0.29857001 -1.3602999
-0.12785 0.30759999 -1.3686
-0.20711499 0.316035 -1.3641
-0.1279 0.33794999 -1.3634
-0.12608001 0.391745 -1.3666999
-0.20043667 0.23501833 -1.35315
-0.2027 0.24894001 -1.3518
-0.12927499 0.241285 -1.3518
-0.20289251 0.253815 -1.3531749
-0.12731251 0.2538875 -1.3573999
-0.12732251 0.26402751 -1.35575
-0.12739332 0.27656332 -1.3561001
-0.12751 0.28556001 -1.359
-0.12741251 0.29422751 -1.353325
-0.20668 0.31689 -1.3588001
-0.12581751 0.38873127 -1.3555875
-0.20007665 0.23489666 -1.3488001
-0.1943059 0.23505174 -1.3453414
-0.18461551 0.23462658 -1.3442894
-0.17479217 0.23379914 -1.3429565
-0.16508402 0.23444058 -1.3432343
-0.1547153 0.23436522 -1.3436084
-0.14515252 0.23473811 -1.3463686
-0.1353603 0.23562765 -1.3470736
-0.12917501 0.23486501 -1.3490999
-0.20012999 0.24269669 -1.3480667
-0.19589578 0.24518117 -1.3423613
-0.1846609 0.24309863 -1.3412408
-0.17391334 0.24034667 -1.3426332
-0.16531 0.2402 -1.34185
-0.15423833 0.24142669 -1.3410167
-0.14488369 0.24289314 -1.3423315
-0.13502641 0.24380644 -1.3435715
-0.12919833 0.24612169 -1.34785
-0.20207 0.25743333 -1.3428
-0.1998775 0.25231248 -1.34325
-0.12907749 0.25375 -1.3418751
-0.20217334 0.26528165 -1.3424667
-0.128135 0.26231498 -1.34535
-0.20287 0.27373001 -1.349
-0.12722002 0.27598 -1.3491001
-0.12718999 0.28018001 -1.3469
-0.20522666 0.31576666 -1.3420334
-0.12597881 0.38567886 -1.3461058
-0.17518857 0.23752142 -1.3390857
-0.16557601 0.238362 -1.3392999
-0.15447666 0.23740333 -1.3391334
-0.19208901 0.244826 -1.3384501
-0.18427555 0.24659555 -1.3381944
-0.17463498 0.24537782 -1.3361467
-0.16506258 0.24475746 -1.3365687
-0.15463455 0.24517758 -1.3383999
-0.14517154 0.24761155 -1.3381768
-0.13643335 0.24809249 -1.3389583
-0.20167001 0.25742 -1.3381
-0.1946457 0.25516647 -1.3353381
-0.1849061 0.2542409 -1.3339727
-0.1758129 0.2551361 -1.332829
-0.16481918 0.25415456 -1.333492
-0.15460551 0.25442472 -1.3340316
-0.14484064 0.25475505 -1.3346282
-0.13532525 0.25508726 -1.3363575
-0.1290125 0.25523999 -1.3390499
-0.20159 0.26407 -1.3357
-0.19534999 0.26357409 -1.3320864
-0.18539801 0.26255798 -1.3312868
-0.17664 0.26225698 -1.33096
-0.16524287 0.26211286 -1.3310286
-0.15433124 0.26194626 -1.3314251
-0.144008 0.262824 -1.3316731
-0.13510182 0.26466903 -1.3334484
-0.12874 0.26592001 -1.3367125
-0.20168833 0.27448165 -1.3348166
-0.19737573 0.27114424 -1.3314571
-0.18646 0.27302 -1.3321
-0.16078 0.27274001 -1.3307
-0.13474751 0.27090248 -1.3317001
-0.12895714 0.27458569 -1.3331
-0.20175999 0.28504503 -1.3334999
-0.1289925 0.28348249 -1.332575
-0.12897 0.29056999 -1.3303
-0.20476499 0.31779999 -1.3361001
-0.20494001 0.32014999 -1.3376
-0.12612666 0.38238049 -1.333719
-0.18602 0.25841001 -1.3289
-0.17331001 0.25799283 -1.3295715
-0.16626571 0.2590757 -1.3282001
-0.15563667 0.25992665 -1.3294333
-0.14922667 0.2583833 -1.3286999
-0.19342469 0.266128 -1.3277466
-0.18478411 0.26674885 -1.3274176
-0.17512679 0.2664457 -1.3266249
-0.16432193 0.26595771 -1.3264645
-0.15472041 0.26596999 -1.3280759
-0.14615548 0.2668905 -1.3279099
-0.136868 0.26901999 -1.32866
-0.20129001 0.27727503 -1.3295
-0.19424485 0.27548888 -1.3256744
-0.18479358 0.27470353 -1.3243644
-0.17526706 0.27449 -1.3226385
-0.16505694 0.27454814 -1.3224425
-0.15521999 0.27444565 -1.3237535
-0.1456567 0.27485877 -1.32442
-0.13516156 0.27562714 -1.3269026
-0.201298 0.28487 -1.3279799
-0.195435 0.28350177 -1.3229455
-0.185482 0.28102201 -1.3227199
-0.17654601 0.280938 -1.32234
-0.16359624 0.28156877 -1.321825
-0.15510999 0.28178999 -1.3213
-0.14400251 0.28272998 -1.321
-0.13480148 0.28495497 -1.3233409
-0.12888749 0.28530252 -1.3281
-0.20117284 0.29389286 -1.3245429
-0.19862001 0.29113999 -1.3200999
-0.13193166 0.29236165 -1.3214333
-0.12882285 0.29485855 -1.3234856
-0.20099001 0.30096 -1.3207999
-0.20344999 0.31865001 -1.3205
-0.20397668 0.32329333 -1.3255334
-0.20900598 0.379287 -1.32394
-0.12718742 0.37905258 -1.3224443
-0.209785 0.38054332 -1.3274666
-0.12701733 0.38052601 -1.32702
-0.18485999 0.27620998 -1.3189334
-0.17445999 0.27612501 -1.319
-0.1633625 0.27607 -1.318675
-0.15322666 0.27863333 -1.3193334
-0.14758 0.27989 -1.3186001
-0.19407283 0.28647861 -1.3172929
-0.18520702 0.28558859 -1.3171763
-0.17483716 0.28501204 -1.3174801
-0.16456221 0.28580803 -1.3171
-0.15510319 0.28543523 -1.3177561
-0.14543219 0.28518784 -1.3179111
-0.13835201 0.28848603 -1.3181601
-0.20069 0.29693002 -1.3181
-0.19502258 0.29478002 -1.313642
-0.18547599 0.2942903 -1.3129799
-0.17463054 0.29412782 -1.3130195
-0.16462408 0.29433408 -1.3128297
-0.15499091 0.29457349 -1.313247
-0.14558107 0.29483628 -1.3138683
-0.13527086 0.29518402 -1.3145174
-0.128685 0.29877001 -1.31715
-0.20068428 0.30553287 -1.3160429
-0.19628729 0.3036609 -1.3122182
-0.18893667 0.30260667 -1.3111
-0.17709333 0.30730999 -1.3119
-0.16215 0.30001 -1.3104
-0.15293001 0.30320802 -1.31058
-0.14512262 0.30413523 -1.3113478
-0.13431726 0.30421865 -1.3120208
-0.12866375 0.30588999 -1.3146625
-0.20138334 0.31445 -1.3138
-0.14127 0.31009001 -1.3121001
-0.13278499 0.31097502 -1.3101499
-0.128638 0.316154 -1.31124
-0.203365 0.32260501 -1.31855
-0.12871 0.32183999 -1.3128
-0.20302001 0.33410001 -1.31155
-0.20717898 0.37715006 -1.3159301
-0.1282631 0.37704271 -1.3154277
-0.19225334 0.29881334 -1.3093001
-0.1851975 0.29895502 -1.3088624
-0.17561446 0.29805005 -1.3092333
-0.16519801 0.29682899 -1.3091899
-0.15638144 0.29826143 -1.3096143
-0.20022 0.30949 -1.3096
-0.19400349 0.30656999 -1.3078549
-0.18482649 0.30559161 -1.3061162
-0.17443697 0.30517748 -1.3064806
-0.16515125 0.30534312 -1.3063844
-0.15627626 0.30569062 -1.3073281
-0.14602599 0.30647153 -1.3080351
-0.13635546 0.30735636 -1.3089274
-0.20009999 0.31617144 -1.3065144
-0.19493282 0.31483689 -1.3041031
-0.18525785 0.31458157 -1.3033607
-0.17418517 0.31442514 -1.3028903
-0.16497415 0.31479552 -1.3029275
-0.15541282 0.31492078 -1.3036283
-0.14525045 0.31546611 -1.3036953
-0.13488302 0.31530932 -1.3057537
-0.12856333 0.31452334 -1.3087333
-0.20214625 0.32562 -1.306525
-0.19679928 0.32316142 -1.3013214
-0.18510152 0.32210153 -1.3020383
-0.17514275 0.32202548 -1.3017364
-0.16552667 0.32105002 -1.3031667
-0.15812333 0.32243332 -1.3016667
-0.14348748 0.32311499 -1.3014001
-0.13391167 0.32419497 -1.3023834
-0.12854125 0.32529747 -1.305225
-0.20250714 0.33576003 -1.3051001
-0.14941999 0.33232 -1.3001
-0.13054 0.33120999 -1.3001
-0.12859 0.33426124 -1.3048999
-0.20240749 0.34435248 -1.3016751
-0.12854999 0.34586 -1.3005
-0.20266999 0.35694 -1.3013999
-0.12861 0.35374999 -1.3004
-0.20571999 0.374834 -1.30714
-0.12885188 0.37375873 -1.3045439
-0.1575 0.30588001 -1.3
-0.19178601 0.31789598 -1.2969201
-0.18374285 0.31702858 -1.2967285
-0.17446667 0.31548747 -1.2961916
-0.16394201 0.31745496 -1.2966999
-0.15447 0.31817251 -1.2993
-0.19499937 0.32620654 -1.2980093
-0.18471213 0.32584241 -1.296366
-0.1744289 0.32594511 -1.2967674
-0.16501799 0.32571968 -1.2963231
-0.15516432 0.32572845 -1.2967304
-0.14572808 0.32611099 -1.2972194
-0.13602856 0.32700524 -1.2979189
-0.20193 0.336465 -1.29805
-0.195335 0.33485848 -1.2945684
-0.18530744 0.33399838 -1.2929837
-0.17477342 0.33512709 -1.2927512
-0.16572423 0.33465397 -1.2929791
-0.15551098 0.33568779 -1.2939783
-0.14491281 0.33520234 -1.2941021
-0.1346232 0.33509961 -1.29547
-0.12841333 0.33706668 -1.2972333
-0.20202111 0.3455556 -1.2967888
-0.19574666 0.34294179 -1.2917181
-0.18724099 0.34259504 -1.2914901
-0.17414999 0.34056333 -1.2904
-0.16553399 0.34157899 -1.29293
-0.15511286 0.34281284 -1.2909429
-0.14461471 0.34239531 -1.2912002
-0.13416131 0.34320921 -1.2922205
-0.12843584 0.34466335 -1.2961
-0.20193751 0.35512999 -1.2932
-0.14265834 0.35268 -1.2913834
-0.13618499 0.35230002 -1.2907
-0.12842098 0.35440603 -1.2928599
-0.20206167 0.36172667 -1.2928166
-0.12849133 0.36614862 -1.2923266
-0.12859231 0.37131691 -1.2949231
-0.177605 0.312875 -1.28635
-0.17493001 0.32872251 -1.2892751
-0.15719 0.32925999 -1.2881
-0.19287001 0.33849001 -1.2895
-0.18273933 0.337614 -1.2883534
-0.17745714 0.33876854 -1.2866572
-0.1646357 0.33860999 -1.2860143
-0.15476599 0.33812401 -1.2873801
-0.14894 0.33963001 -1.2869
-0.20153999 0.34957001 -1.29
-0.1944019 0.34703857 -1.2870287
-0.1842915 0.34588569 -1.2864233
-0.17502412 0.34554881 -1.2857215
-0.16582207 0.34592336 -1.2854198
-0.15531224 0.34543616 -1.2859838
-0.1451779 0.34584558 -1.2875541
-0.13499294 0.34688354 -1.2883765
-0.12827 0.34760001 -1.2886
-0.20157999 0.35402501 -1.28925
-0.19521901 0.35504743 -1.2836938
-0.18417315 0.35447744 -1.2821358
-0.1748845 0.35472712 -1.2821389
-0.16535053 0.35507008 -1.2823453
-0.15512788 0.35489085 -1.2826799
-0.14484894 0.35509893 -1.2843376
-0.1344642 0.3554585 -1.2855873
-0.12831572 0.35792711 -1.2878572
-0.20148551 0.36621526 -1.2847308
-0.19598046 0.36422181 -1.2812655
-0.18399353 0.36607563 -1.2817262
-0.17499444 0.36608461 -1.2820408
-0.16600783 0.36501601 -1.281081
-0.15462688 0.36345997 -1.280975
-0.1444138 0.36336502 -1.2814941
-0.13351342 0.36485684 -1.2821994
-0.12837222 0.36500221 -1.2880555
-0.19260623 0.35779625 -1.2791874
-0.18480119 0.35757595 -1.2790639
-0.17539285 0.35838476 -1.2784288
-0.16637158 0.35812101 -1.2782792
-0.1548509 0.35803819 -1.2788364
-0.14598624 0.35855249 -1.2792624
-0.20103501 0.3668175 -1.2792
-0.19416539 0.36498648 -1.2766242
-0.18482433 0.36444342 -1.2761688
-0.17561573 0.36467347 -1.2763168
-0.16528095 0.36483344 -1.2768341
-0.15519939 0.36492169 -1.2777246
-0.14481725 0.3651222 -1.277621
-0.13549407 0.36549231 -1.2784181
-0.12813 0.36248001 -1.2793
-0.1920646 0.36307618 -1.2662078
-0.18634218 0.36299759 -1.266192
-0.17645288 0.36383572 -1.2688285
-0.16601832 0.36399499 -1.2693666
-0.18825667 0.36084333 -1.2591667
